ply
format ascii 1.0
element vertex 1197
property float x
property float y
property float z
property uchar red
property uchar green
property uchar blue
end_header
-3.945799 -1.062331 -22.200542 36 74 113 
-3.891892 -1.059459 -22.140541 58 102 143 
-3.838275 -1.056604 -22.080862 72 123 163 
-3.764706 -1.048128 -21.903744 69 126 164 
-3.702128 -1.042553 -21.787233 68 127 165 
-3.649867 -1.039788 -21.729443 69 127 165 
-3.607427 -1.039788 -21.729443 70 127 165 
-3.184275 -0.963145 -20.127764 72 127 166 
-3.099274 -0.949153 -19.835352 73 128 168 
-3.038461 -0.942308 -19.692308 73 128 169 
-2.978520 -0.935561 -19.551313 73 128 169 
-2.919431 -0.928910 -19.412323 72 127 168 
-2.847775 -0.918033 -19.185011 72 127 168 
-2.739726 -0.894977 -18.703196 72 127 168 
-2.596491 -0.859649 -17.964912 72 127 168 
-2.528139 -0.848485 -17.731602 72 127 168 
-2.488121 -0.846652 -17.693304 70 128 167 
-2.458874 -0.848485 -17.731602 70 128 166 
-2.445415 -0.855895 -17.886463 69 127 164 
-2.410480 -0.855895 -17.886463 67 125 163 
-2.375546 -0.855895 -17.886463 67 124 162 
-2.340611 -0.855895 -17.886463 53 103 142 
-2.300654 -0.854030 -17.847494 14 55 91 
-2.255965 -0.850325 -17.770065 9 44 78 
-2.221258 -0.850325 -17.770065 13 45 78 
-2.191304 -0.852174 -17.808695 15 46 78 
-1.676471 -0.720588 -15.058824 16 44 74 
-0.888889 -0.388889 -8.126985 14 43 72 
-1.602914 -0.714025 -14.921676 13 43 72 
-3.512195 -1.593496 -33.300812 14 43 73 
-3.250996 -1.561753 -32.637451 14 43 75 
-3.187251 -1.561753 -32.637451 14 43 77 
-2.992366 -1.496183 -31.267176 16 44 78 
-2.648276 -1.351724 -28.248276 17 46 79 
-2.490066 -1.298013 -27.125828 18 47 81 
-2.381877 -1.268608 -26.511328 17 48 82 
-2.285714 -1.244444 -26.006350 18 50 86 
-2.227848 -1.240506 -25.924051 17 52 90 
-2.150000 -1.225000 -25.600000 22 63 103 
-2.100000 -1.225000 -25.600000 62 111 152 
-2.043614 -1.221184 -25.520248 71 127 168 
-1.987578 -1.217391 -25.440994 71 129 169 
-1.925926 -1.209877 -25.283951 71 129 169 
-1.870769 -1.206154 -25.206154 71 129 169 
-0.157635 -0.482759 -10.088670 69 131 168 
-0.137423 -0.480982 -10.051534 68 131 168 
-0.117503 -0.479804 -10.026928 69 131 168 
-0.097800 -0.479218 -10.014670 69 132 169 
-0.078240 -0.479218 -10.014670 69 133 171 
-0.063830 -0.521277 -10.893617 70 134 172 
-0.042553 -0.521277 -10.893617 72 133 172 
-0.021277 -0.521277 -10.893617 72 130 171 
0.000000 -0.521971 -10.908122 45 97 137 
0.021305 -0.521971 -10.908122 18 63 103 
0.042610 -0.521971 -10.908122 18 56 95 
0.063915 -0.521971 -10.908122 20 53 92 
0.085106 -0.521277 -10.893617 22 52 89 
0.106101 -0.519894 -10.864721 20 52 86 
0.127152 -0.519205 -10.850331 19 52 85 
0.148148 -0.518519 -10.835979 19 52 84 
0.168865 -0.517150 -10.807388 20 51 84 
0.189225 -0.515112 -10.764783 19 50 83 
0.209699 -0.513761 -10.736567 18 49 81 
0.230065 -0.512418 -10.708497 18 49 80 
0.250000 -0.510417 -10.666667 17 48 80 
0.270833 -0.510417 -10.666667 17 48 80 
0.291667 -0.510417 -10.666667 18 48 82 
0.424779 -0.693805 -14.499115 19 49 83 
0.452297 -0.692580 -14.473498 20 50 86 
0.476357 -0.686515 -14.346760 19 51 88 
0.504378 -0.686515 -14.346760 25 61 99 
0.532399 -0.686515 -14.346760 66 108 146 
0.683274 -0.465006 -9.717675 66 112 149 
0.701422 -0.464455 -9.706161 79 129 166 
0.720379 -0.464455 -9.706161 78 130 169 
0.741974 -0.466112 -9.740785 77 131 169 
0.765550 -0.468900 -9.799043 76 132 169 
0.787515 -0.470588 -9.834333 75 132 169 
0.806723 -0.470588 -9.834333 74 132 169 
0.825930 -0.470588 -9.834333 72 132 168 
0.843114 -0.469461 -9.810779 72 132 167 
0.861244 -0.468900 -9.799043 72 131 165 
0.878282 -0.467780 -9.775657 74 130 165 
0.890995 -0.464455 -9.706161 74 129 165 
0.899297 -0.459016 -9.592505 73 126 164 
0.910569 -0.455285 -9.514518 72 123 162 
0.926999 -0.454229 -9.492468 72 119 158 
0.944444 -0.453704 -9.481482 52 95 133 
0.959631 -0.452134 -9.448673 22 60 97 
0.972477 -0.449541 -9.394495 21 55 90 
0.987429 -0.448000 -9.362286 22 53 86 
1.002278 -0.446469 -9.330297 23 50 83 
1.009009 -0.441441 -9.225225 21 50 80 
1.011086 -0.434590 -9.082040 19 49 78 
1.019780 -0.430769 -9.002198 20 50 79 
1.033954 -0.429354 -8.972618 21 51 79 
1.041215 -0.425163 -8.885033 22 52 79 
1.052859 -0.422869 -8.837109 23 51 79 
1.068966 -0.422414 -8.827586 23 50 77 
1.085038 -0.421959 -8.818084 23 50 76 
1.103448 -0.422414 -8.827586 24 49 76 
3.458333 -1.020833 -21.333334 24 49 75 
3.481865 -1.015544 -21.222797 23 50 75 
3.514212 -1.012920 -21.167959 23 51 75 
3.528205 -1.005128 -21.005129 22 54 76 
1.477707 -0.416136 -8.696391 21 55 76 
1.491525 -0.415254 -8.677966 27 63 84 
1.497371 -0.412198 -8.614090 56 97 118 
1.498439 -0.407908 -8.524454 69 113 136 
1.501031 -0.404124 -8.445361 71 119 143 
1.511294 -0.402464 -8.410678 73 123 149 
1.504550 -0.396360 -8.283114 74 124 152 
1.513078 -0.394366 -8.241448 76 126 155 
1.507936 -0.388889 -8.126985 78 127 157 
1.523810 -0.388889 -8.126985 79 128 158 
1.608290 -0.406218 -8.489120 80 129 159 
1.624870 -0.406218 -8.489120 80 129 159 
1.641451 -0.406218 -8.489120 80 129 159 
1.612903 -0.395161 -8.258064 79 128 158 
1.625754 -0.394366 -8.241448 79 128 157 
1.633634 -0.392392 -8.200200 79 129 156 
1.649650 -0.392392 -8.200200 79 129 156 
1.665666 -0.392392 -8.200200 80 128 156 
1.688442 -0.393970 -8.233166 80 128 156 
1.709677 -0.395161 -8.258064 79 127 155 
5.417722 -1.240506 -25.924051 78 126 153 
5.468354 -1.240506 -25.924051 75 123 151 
5.467084 -1.228840 -25.680250 73 120 148 
5.448916 -1.213622 -25.362228 75 121 150 
5.447853 -1.202454 -25.128834 75 120 148 
5.397590 -1.180723 -24.674698 72 109 139 
5.397015 -1.170149 -24.453732 39 71 101 
5.428571 -1.166667 -24.380953 23 51 80 
5.411765 -1.152941 -24.094118 25 51 78 
5.458824 -1.152941 -24.094118 24 49 74 
2.555556 -0.453704 -9.481482 64 93 114 
2.544622 -0.448513 -9.372997 81 113 134 
2.542565 -0.444949 -9.298525 78 113 135 
2.492818 -0.433149 -9.051933 78 115 138 
2.466884 -0.425624 -8.894680 78 116 139 
2.473514 -0.423784 -8.856216 78 118 140 
2.482759 -0.422414 -8.827586 80 119 140 
2.500000 -0.422414 -8.827586 81 120 140 
2.517241 -0.422414 -8.827586 81 119 138 
2.539683 -0.388889 -8.126985 80 117 138 
2.555556 -0.388889 -8.126985 79 114 134 
2.571429 -0.388889 -8.126985 81 114 134 
2.587301 -0.388889 -8.126985 59 91 110 
3.223022 -0.402878 -8.419322 23 44 59 
3.226203 -0.401228 -8.384851 24 43 57 
3.239264 -0.400818 -8.376278 24 42 56 
3.262295 -0.401639 -8.393442 24 42 56 
3.333333 -0.408333 -8.533334 24 42 55 
3.350000 -0.408333 -8.533334 24 42 54 
3.363163 -0.407908 -8.524454 24 42 53 
3.383333 -0.408333 -8.533334 24 42 52 
3.396462 -0.407908 -8.524454 23 41 51 
3.406023 -0.407061 -8.506750 23 41 51 
3.422638 -0.407061 -8.506750 23 41 51 
inf -inf -inf 63 93 102 
inf -inf -inf 62 91 101 
inf -inf -inf 45 71 82 
inf -inf -inf 17 39 50 
inf -inf -inf 13 32 43 
inf -inf -inf 14 31 41 
inf -inf -inf 16 30 38 
inf -inf -inf 15 29 34 
inf -inf -inf 14 28 30 
inf -inf -inf 15 27 29 
inf -inf -inf 15 26 30 
inf -inf -inf 15 25 30 
inf -inf -inf 14 24 29 
inf -inf -inf 14 23 28 
inf -inf -inf 14 24 27 
302.857147 -28.000000 -585.142883 14 24 26 
266.000000 -24.500000 -512.000000 14 24 25 
267.000000 -24.500000 -512.000000 14 22 24 
268.000000 -24.500000 -512.000000 14 22 24 
269.000000 -24.500000 -512.000000 13 21 23 
288.000000 -26.133333 -546.133362 13 21 23 
4.349206 -0.388889 -8.126985 12 20 22 
4.365079 -0.388889 -8.126985 12 20 22 
4.380952 -0.388889 -8.126985 11 19 21 
4.396825 -0.388889 -8.126985 11 18 20 
4.412698 -0.388889 -8.126985 12 18 20 
4.428571 -0.388889 -8.126985 12 17 20 
4.444445 -0.388889 -8.126985 12 17 20 
4.460318 -0.388889 -8.126985 12 17 20 
4.476191 -0.388889 -8.126985 13 18 21 
4.492064 -0.388889 -8.126985 13 18 21 
4.507936 -0.388889 -8.126985 13 17 20 
4.523809 -0.388889 -8.126985 13 17 19 
4.539682 -0.388889 -8.126985 12 16 18 
4.555555 -0.388889 -8.126985 12 16 17 
4.571429 -0.388889 -8.126985 13 17 18 
4.587302 -0.388889 -8.126985 13 17 18 
4.920466 -0.415695 -8.687169 13 17 18 
4.937434 -0.415695 -8.687169 13 17 18 
4.959661 -0.416136 -8.696391 12 16 17 
4.729459 -0.392786 -8.208417 11 16 14 
4.698413 -0.388889 -8.126985 9 17 14 
4.714286 -0.388889 -8.126985 8 17 14 
4.730159 -0.388889 -8.126985 8 17 14 
4.746032 -0.388889 -8.126985 8 17 14 
4.761905 -0.388889 -8.126985 8 17 15 
4.777778 -0.388889 -8.126985 9 16 15 
4.793651 -0.388889 -8.126985 9 15 15 
4.809524 -0.388889 -8.126985 9 15 15 
7.006973 -0.546722 -11.425384 9 15 15 
7.000000 -0.544444 -11.377778 9 15 15 
7.051604 -0.546722 -11.425384 9 15 15 
-67.147537 -6.688525 -134.295074 33 30 21 
-9.107142 -0.910714 -18.285715 39 36 27 
-9.051225 -0.908686 -18.244989 41 38 29 
-8.995556 -0.906667 -18.204445 45 42 33 
-8.920354 -0.902655 -18.123894 49 46 37 
-8.884955 -0.902655 -18.123894 47 44 35 
-9.132421 -0.931507 -18.703196 47 43 34 
-13.080702 -1.431579 -28.743860 46 42 30 
-5.295292 -0.582026 -11.686163 53 49 36 
-6.323529 -0.750000 -15.058824 39 39 31 
-6.282569 -0.748624 -15.031193 39 39 31 
-6.241758 -0.747253 -15.003663 40 40 32 
-6.235294 -0.750000 -15.058824 38 37 28 
-6.251852 -0.755556 -15.170370 45 44 34 
-6.233766 -0.756957 -15.198516 63 61 50 
-6.601626 -0.829268 -16.650406 55 51 42 
-6.569106 -0.829268 -16.650406 52 48 39 
-2.758621 -0.439655 -8.827586 46 44 40 
-2.744337 -0.440129 -8.837109 54 53 48 
-2.718280 -0.438710 -8.808602 59 58 53 
-2.492064 -0.404762 -8.126985 47 46 41 
-2.476191 -0.404762 -8.126985 46 45 40 
-2.460317 -0.404762 -8.126985 53 52 47 
-2.444444 -0.404762 -8.126985 58 56 49 
-2.705750 -0.459977 -9.235625 47 44 37 
-2.678652 -0.458427 -9.204494 47 44 37 
-2.654709 -0.457399 -9.183857 56 53 46 
-2.636771 -0.457399 -9.183857 67 64 57 
-2.604236 -0.454850 -9.132665 68 65 58 
-2.301587 -0.404762 -8.126985 61 58 51 
-2.285714 -0.404762 -8.126985 60 57 49 
-2.600000 -0.463636 -9.309091 64 62 52 
-2.581818 -0.463636 -9.309091 61 59 50 
-2.557823 -0.462585 -9.287982 59 56 47 
-2.536806 -0.462061 -9.277463 60 57 49 
-2.515837 -0.461538 -9.266969 57 54 47 
-2.500566 -0.462061 -9.277463 54 51 45 
-2.142857 -0.404762 -8.126985 55 53 47 
-2.106533 -0.410050 -8.233166 38 36 32 
-2.063492 -0.404762 -8.126985 44 41 38 
-2.047619 -0.404762 -8.126985 53 49 47 
-2.031746 -0.404762 -8.126985 54 51 50 
-2.015873 -0.404762 -8.126985 49 47 46 
-2.000000 -0.404762 -8.126985 45 44 43 
-1.984127 -0.404762 -8.126985 41 40 39 
-1.968254 -0.404762 -8.126985 40 39 38 
-1.952381 -0.404762 -8.126985 40 39 38 
-1.936508 -0.404762 -8.126985 43 41 40 
-2.127473 -0.448352 -9.002198 48 46 45 
-2.109890 -0.448352 -9.002198 48 47 47 
-2.087719 -0.447368 -8.982456 44 44 44 
-2.070175 -0.447368 -8.982456 45 45 44 
-2.052632 -0.447368 -8.982456 46 46 47 
-6.191571 -1.563218 -31.386972 38 45 55 
-5.925926 -1.511111 -30.340740 35 45 58 
-5.823529 -1.500000 -30.117647 33 48 64 
-5.764706 -1.500000 -30.117647 37 57 76 
-4.099174 -1.123967 -22.567493 39 71 102 
-4.032876 -1.117808 -22.443836 37 71 105 
-3.956522 -1.108696 -22.260870 37 75 113 
-3.902439 -1.105691 -22.200542 54 99 139 
-3.838275 -1.099730 -22.080862 70 121 161 
-3.764706 -1.090909 -21.903744 69 126 164 
-3.702128 -1.085106 -21.787233 69 128 166 
-3.649867 -1.082228 -21.729443 70 127 166 
-3.223587 -1.002457 -20.127764 72 127 166 
-3.138015 -0.987893 -19.835352 72 127 166 
-3.076923 -0.980769 -19.692308 73 128 168 
-3.016706 -0.973747 -19.551313 73 128 169 
-2.957346 -0.966825 -19.412323 73 128 169 
-2.912529 -0.964539 -19.366430 72 127 168 
-2.847775 -0.955504 -19.185011 72 127 168 
-2.758621 -0.937931 -18.832184 72 127 168 
-2.631111 -0.906667 -18.204445 72 127 168 
-2.561404 -0.894737 -17.964912 72 127 168 
-2.498915 -0.885033 -17.770065 70 127 167 
-2.480349 -0.890830 -17.886463 69 127 166 
-2.445415 -0.890830 -17.886463 68 127 165 
-2.426374 -0.896703 -18.004396 66 125 164 
-2.375546 -0.890830 -17.886463 67 125 164 
-2.335512 -0.888889 -17.847494 57 109 148 
-2.295652 -0.886957 -17.808695 17 61 97 
-2.255965 -0.885033 -17.770065 8 45 79 
-2.216450 -0.883117 -17.731602 14 46 78 
-2.177106 -0.881209 -17.693304 15 46 77 
-1.000000 -0.411290 -8.258064 16 46 77 
-0.980905 -0.410050 -8.233166 15 44 74 
-0.962889 -0.409228 -8.216650 14 42 72 
-0.946841 -0.409228 -8.216650 16 43 73 
-0.928929 -0.408408 -8.200200 16 43 73 
-0.904762 -0.404762 -8.126985 16 43 73 
-0.888889 -0.404762 -8.126985 15 42 73 
-3.636364 -1.685950 -33.851238 15 42 73 
-3.570248 -1.685950 -33.851238 15 42 73 
-3.504132 -1.685950 -33.851238 15 42 74 
-3.328000 -1.632000 -32.768002 15 42 75 
-3.187500 -1.593750 -32.000000 15 42 75 
-3.125000 -1.593750 -32.000000 16 43 76 
-2.992366 -1.557252 -31.267176 17 44 77 
-2.648276 -1.406897 -28.248276 18 45 78 
-2.498339 -1.355482 -27.215946 19 47 79 
-2.389610 -1.324675 -26.597403 18 47 81 
-2.292994 -1.299363 -26.089172 17 48 84 
-2.227848 -1.291139 -25.924051 15 49 87 
-2.150000 -1.275000 -25.600000 22 61 101 
-2.100000 -1.275000 -25.600000 60 107 149 
-2.043614 -1.271028 -25.520248 73 127 168 
-1.987578 -1.267081 -25.440994 72 128 169 
-1.920000 -1.255385 -25.206154 71 128 168 
-1.859327 -1.247706 -25.051989 70 128 168 
-1.810398 -1.247706 -25.051989 70 128 168 
-1.508571 -1.165714 -23.405714 72 129 172 
-1.434174 -1.142857 -22.946779 70 129 171 
-1.389356 -1.142857 -22.946779 71 130 172 
-1.344538 -1.142857 -22.946779 71 130 172 
-1.292479 -1.136490 -22.818941 70 129 171 
-1.254902 -1.142857 -22.946779 70 128 170 
-0.137931 -0.502463 -10.088670 69 131 168 
-0.117791 -0.500614 -10.051534 69 131 168 
-0.097919 -0.499388 -10.026928 69 132 169 
-0.063830 -0.542553 -10.893617 71 134 172 
-0.042553 -0.542553 -10.893617 72 133 172 
-0.021277 -0.542553 -10.893617 71 129 169 
0.000000 -0.543276 -10.908122 46 97 137 
0.021333 -0.544000 -10.922667 18 63 102 
0.042667 -0.544000 -10.922667 21 59 98 
0.063915 -0.543276 -10.908122 23 55 94 
0.084993 -0.541833 -10.879150 21 52 89 
0.106101 -0.541114 -10.864721 18 51 85 
0.127321 -0.541114 -10.864721 18 50 83 
0.148541 -0.541114 -10.864721 19 50 83 
0.169536 -0.540397 -10.850331 20 50 83 
0.190728 -0.540397 -10.850331 19 49 83 
0.210804 -0.537549 -10.793149 18 49 81 
0.230668 -0.534731 -10.736567 18 48 80 
0.250980 -0.533333 -10.708497 18 48 81 
0.270833 -0.531250 -10.666667 18 48 82 
0.292428 -0.532637 -10.694517 18 48 83 
0.424779 -0.722124 -14.499115 19 49 84 
0.453097 -0.722124 -14.499115 19 51 87 
0.478032 -0.717047 -14.397188 18 51 88 
0.504378 -0.714536 -14.346760 20 56 94 
0.634615 -0.490385 -9.846154 23 57 94 
0.667461 -0.486293 -9.764005 36 77 114 
0.684899 -0.485137 -9.740785 67 113 151 
0.703088 -0.484561 -9.729217 80 130 168 
0.722090 -0.484561 -9.729217 79 131 170 
0.742857 -0.485714 -9.752381 77 132 169 
0.767386 -0.489209 -9.822542 77 133 170 
0.787515 -0.489796 -9.834333 76 133 170 
0.807692 -0.490385 -9.846154 74 133 170 
0.826923 -0.490385 -9.846154 74 133 170 
0.843114 -0.488623 -9.810779 73 133 168 
0.860215 -0.487455 -9.787335 72 131 166 
0.877235 -0.486293 -9.764005 73 130 165 
0.885748 -0.480565 -9.648999 74 129 165 
0.895105 -0.475524 -9.547786 74 127 165 
0.908459 -0.472769 -9.492468 72 123 161 
0.925926 -0.472222 -9.481482 72 120 158 
0.943353 -0.471676 -9.470520 54 98 135 
0.959631 -0.470588 -9.448673 25 63 99 
0.973594 -0.468427 -9.405281 22 56 92 
0.987429 -0.466286 -9.362286 23 53 87 
1.001138 -0.464164 -9.319681 23 51 83 
1.009009 -0.459459 -9.225225 22 50 82 
1.023569 -0.457912 -9.194164 21 50 81 
1.024283 -0.450331 -9.041943 23 52 82 
1.035088 -0.447368 -8.982456 24 54 83 
1.041215 -0.442516 -8.885033 25 54 83 
1.055135 -0.441081 -8.856216 26 53 82 
1.070119 -0.440129 -8.837109 25 51 80 
1.086207 -0.439655 -8.827586 25 50 79 
1.102260 -0.439182 -8.818084 26 51 79 
1.120690 -0.439655 -8.827586 27 51 80 
3.440414 -1.056995 -21.222797 25 51 79 
3.463917 -1.051546 -21.113401 26 53 79 
3.505155 -1.051546 -21.113401 25 53 78 
3.537275 -1.048843 -21.059126 24 54 76 
3.560102 -1.043478 -20.951406 20 52 73 
3.555556 -1.030303 -20.686869 30 66 88 
3.595960 -1.030303 -20.686869 59 99 122 
3.600000 -1.020000 -20.480000 75 117 141 
1.515088 -0.424558 -8.524454 76 122 148 
1.528557 -0.423676 -8.506750 74 123 149 
1.534021 -0.420619 -8.445361 75 125 153 
1.520728 -0.412538 -8.283114 78 127 157 
1.532258 -0.411290 -8.258064 80 128 158 
1.600000 -0.425000 -8.533334 81 129 159 
1.616667 -0.425000 -8.533334 81 130 160 
1.633333 -0.425000 -8.533334 82 130 160 
1.638554 -0.409639 -8.224899 83 131 160 
1.649650 -0.408408 -8.200200 83 131 159 
1.665666 -0.408408 -8.200200 82 130 158 
1.690141 -0.410463 -8.241448 80 130 157 
1.709677 -0.411290 -8.258064 79 128 156 
5.417722 -1.291139 -25.924051 78 127 155 
5.468354 -1.291139 -25.924051 76 125 153 
5.484277 -1.283019 -25.761005 76 123 151 
5.465838 -1.267081 -25.440994 77 123 152 
5.447853 -1.251534 -25.128834 76 121 149 
5.397590 -1.228916 -24.674698 69 107 137 
5.397015 -1.217910 -24.453732 37 71 101 
5.428571 -1.214286 -24.380953 22 51 81 
5.411765 -1.200000 -24.094118 24 51 78 
5.458824 -1.200000 -24.094118 24 49 74 
2.510497 -0.450829 -9.051933 77 118 139 
2.484256 -0.442997 -8.894680 78 119 140 
2.380952 -0.404762 -8.126985 83 121 140 
2.523809 -0.404762 -8.126985 79 120 142 
2.539683 -0.404762 -8.126985 78 118 140 
2.555556 -0.404762 -8.126985 77 115 137 
2.571429 -0.404762 -8.126985 80 116 137 
2.587301 -0.404762 -8.126985 56 90 110 
2.603175 -0.404762 -8.126985 21 54 72 
2.730159 -0.404762 -8.126985 57 88 104 
2.746032 -0.404762 -8.126985 68 99 116 
3.239465 -0.419322 -8.419322 24 43 57 
3.239264 -0.417178 -8.376278 24 42 56 
3.258956 -0.417605 -8.384851 24 42 55 
3.353493 -0.425443 -8.542232 25 43 53 
3.366667 -0.425000 -8.533334 24 42 52 
3.386861 -0.425443 -8.542232 23 41 51 
3.400000 -0.425000 -8.533334 23 42 51 
3.416667 -0.425000 -8.533334 23 41 50 
inf -inf -inf 66 95 105 
inf -inf -inf 63 92 102 
inf -inf -inf 40 66 78 
inf -inf -inf 17 39 51 
inf -inf -inf 14 32 44 
inf -inf -inf 14 30 40 
inf -inf -inf 16 30 38 
inf -inf -inf 16 29 35 
inf -inf -inf 15 28 30 
inf -inf -inf 16 27 29 
inf -inf -inf 15 26 30 
inf -inf -inf 15 25 29 
inf -inf -inf 15 24 29 
inf -inf -inf 15 24 28 
inf -inf -inf 14 24 27 
282.666656 -27.200001 -546.133362 14 24 26 
266.000000 -25.500000 -512.000000 14 23 25 
267.000000 -25.500000 -512.000000 14 22 24 
268.000000 -25.500000 -512.000000 14 22 24 
269.000000 -25.500000 -512.000000 14 21 23 
288.000000 -27.200001 -546.133362 14 20 23 
4.349206 -0.404762 -8.126985 12 20 22 
4.365079 -0.404762 -8.126985 12 20 22 
4.380952 -0.404762 -8.126985 11 19 21 
4.396825 -0.404762 -8.126985 11 19 21 
4.412698 -0.404762 -8.126985 12 18 21 
4.428571 -0.404762 -8.126985 12 17 20 
4.444445 -0.404762 -8.126985 12 17 20 
4.460318 -0.404762 -8.126985 12 17 20 
4.476191 -0.404762 -8.126985 12 17 20 
4.492064 -0.404762 -8.126985 12 17 20 
4.507936 -0.404762 -8.126985 13 17 20 
4.523809 -0.404762 -8.126985 13 17 20 
4.539682 -0.404762 -8.126985 13 17 19 
4.555555 -0.404762 -8.126985 13 17 19 
4.571429 -0.404762 -8.126985 13 17 18 
4.587302 -0.404762 -8.126985 13 17 18 
4.920466 -0.432662 -8.687169 13 17 18 
4.942675 -0.433121 -8.696391 13 17 18 
4.959661 -0.433121 -8.696391 12 16 17 
4.729459 -0.408818 -8.208417 12 16 15 
4.698413 -0.404762 -8.126985 10 17 15 
4.714286 -0.404762 -8.126985 9 18 16 
4.730159 -0.404762 -8.126985 9 18 16 
4.746032 -0.404762 -8.126985 9 18 16 
4.761905 -0.404762 -8.126985 9 18 16 
4.777778 -0.404762 -8.126985 10 16 16 
4.793651 -0.404762 -8.126985 9 15 15 
4.809524 -0.404762 -8.126985 10 15 15 
7.026574 -0.570629 -11.457343 9 15 15 
7.029289 -0.569038 -11.425384 9 15 15 
-67.147537 -6.950819 -134.295074 33 30 21 
-9.086860 -0.944321 -18.244989 38 35 26 
-8.971302 -0.935982 -18.083885 41 38 29 
-8.935983 -0.935982 -18.083885 47 44 35 
-8.822757 -0.927790 -17.925602 50 47 38 
-8.768559 -0.925764 -17.886463 47 43 34 
-8.733624 -0.925764 -17.886463 46 42 32 
-8.853333 -0.942222 -18.204445 48 43 33 
-13.437722 -1.508897 -29.153025 42 39 28 
-13.239436 -1.492958 -28.845070 45 41 30 
-13.136842 -1.487719 -28.743860 44 41 29 
-13.080702 -1.487719 -28.743860 48 45 33 
-6.364641 -0.780847 -15.086556 45 43 35 
-6.323529 -0.779412 -15.058824 43 42 34 
-6.282569 -0.777982 -15.031193 39 38 31 
-6.264706 -0.779412 -15.058824 40 39 31 
-6.235294 -0.779412 -15.058824 41 39 30 
-6.240296 -0.783734 -15.142329 55 52 42 
-6.210721 -0.783734 -15.142329 62 59 47 
-6.204082 -0.786642 -15.198516 57 53 42 
-6.752599 -0.881497 -17.031185 56 49 41 
-2.718280 -0.455914 -8.808602 67 66 61 
-2.492064 -0.420635 -8.126985 48 47 42 
-2.476191 -0.420635 -8.126985 47 46 41 
-2.460317 -0.420635 -8.126985 56 55 50 
-2.444444 -0.420635 -8.126985 61 58 53 
-2.428571 -0.420635 -8.126985 65 62 57 
-2.726862 -0.478555 -9.246050 53 50 44 
-2.696629 -0.476404 -9.204494 50 47 40 
-2.669653 -0.474804 -9.173573 55 52 45 
-2.645810 -0.473743 -9.153072 65 62 55 
-2.625000 -0.473214 -9.142858 74 71 64 
-2.317460 -0.420635 -8.126985 73 70 64 
-2.301587 -0.420635 -8.126985 64 61 55 
-2.285714 -0.420635 -8.126985 58 55 48 
-2.600000 -0.481818 -9.309091 57 54 46 
-2.581818 -0.481818 -9.309091 59 56 48 
-2.557823 -0.480726 -9.287982 60 57 49 
-2.536806 -0.480181 -9.277463 62 59 52 
-2.515837 -0.479638 -9.266969 58 55 48 
-2.158730 -0.420635 -8.126985 62 59 54 
-2.142857 -0.420635 -8.126985 59 56 51 
-2.106533 -0.426131 -8.233166 35 34 30 
-2.063492 -0.420635 -8.126985 43 41 38 
-2.047619 -0.420635 -8.126985 51 49 47 
-2.031746 -0.420635 -8.126985 52 50 49 
-2.015873 -0.420635 -8.126985 49 48 46 
-2.000000 -0.420635 -8.126985 46 45 43 
-1.984127 -0.420635 -8.126985 45 44 42 
-1.968254 -0.420635 -8.126985 48 47 45 
-1.952381 -0.420635 -8.126985 49 48 46 
-2.008230 -0.436214 -8.427983 50 48 46 
-2.127473 -0.465934 -9.002198 52 49 47 
-2.109890 -0.465934 -9.002198 50 49 46 
-2.092308 -0.465934 -9.002198 44 44 42 
-2.074725 -0.465934 -9.002198 42 42 40 
-6.135338 -1.593985 -30.796993 42 48 54 
-5.985185 -1.570370 -30.340740 35 43 53 
-5.882353 -1.558824 -30.117647 29 41 53 
-5.677419 -1.519713 -29.362007 27 44 60 
-5.620072 -1.519713 -29.362007 33 54 73 
-4.110497 -1.171271 -22.629835 38 69 100 
-4.043956 -1.164835 -22.505495 36 70 104 
-3.967303 -1.155313 -22.321526 37 76 113 
-3.902439 -1.149052 -22.200542 50 95 134 
-3.838275 -1.142857 -22.080862 66 118 157 
-3.764706 -1.133690 -21.903744 68 125 164 
-3.692308 -1.124668 -21.729443 69 127 165 
-3.640212 -1.121693 -21.671957 70 127 166 
-3.176755 -1.026634 -19.835352 72 127 166 
-3.122892 -1.021687 -19.739759 72 127 166 
-3.054893 -1.011933 -19.551313 72 127 168 
-3.002375 -1.007126 -19.458433 72 127 168 
-2.957346 -1.004739 -19.412323 72 127 168 
-2.912529 -1.002364 -19.366430 72 127 168 
-2.874705 -1.002364 -19.366430 72 127 168 
-2.764977 -0.976959 -18.875576 72 127 168 
-2.654709 -0.950673 -18.367714 72 127 168 
-2.595556 -0.942222 -18.204445 72 127 168 
-2.515284 -0.925764 -17.886463 70 127 168 
-2.496703 -0.931868 -18.004396 69 127 167 
-2.445415 -0.925764 -17.886463 68 126 166 
-2.426374 -0.931868 -18.004396 67 126 166 
-2.375546 -0.925764 -17.886463 67 125 166 
-2.330435 -0.921739 -17.808695 58 112 152 
-2.295652 -0.921739 -17.808695 19 65 102 
-2.260870 -0.921739 -17.808695 7 46 81 
-2.216450 -0.917749 -17.731602 13 47 79 
-1.016129 -0.427419 -8.258064 15 46 77 
-0.995984 -0.425703 -8.224899 15 44 75 
-0.978937 -0.425276 -8.216650 14 43 73 
-0.961924 -0.424850 -8.208417 14 42 72 
-0.945892 -0.424850 -8.208417 15 42 72 
-0.928929 -0.424424 -8.200200 16 43 73 
-0.904762 -0.420635 -8.126985 16 43 73 
-3.717842 -1.759336 -33.991703 16 42 74 
-3.651452 -1.759336 -33.991703 15 41 74 
-3.570248 -1.752066 -33.851238 15 41 74 
-3.447155 -1.723577 -33.300812 15 41 74 
-3.328000 -1.696000 -32.768002 16 42 75 
-3.187500 -1.656250 -32.000000 16 43 75 
-3.125000 -1.656250 -32.000000 17 44 75 
-2.969697 -1.606061 -31.030304 18 44 75 
-2.630137 -1.452055 -28.054794 19 45 77 
-2.490066 -1.403973 -27.125828 19 45 78 
-2.413115 -1.390164 -26.859016 19 47 80 
-2.315113 -1.363344 -26.340836 18 47 82 
-2.234921 -1.346032 -26.006350 16 48 85 
-2.156740 -1.329154 -25.680250 23 60 99 
-2.100000 -1.325000 -25.600000 59 104 145 
-2.043614 -1.320872 -25.520248 74 125 166 
-1.987578 -1.316770 -25.440994 73 128 169 
-1.920000 -1.304615 -25.206154 72 127 168 
-1.848024 -1.288754 -24.899696 71 128 167 
-1.772455 -1.269461 -24.526947 70 128 167 
-1.709199 -1.258160 -24.308605 70 128 167 
-1.656805 -1.254438 -24.236687 71 129 169 
-1.581395 -1.232558 -23.813953 72 130 170 
-1.508571 -1.211429 -23.405714 71 128 170 
-1.434174 -1.187675 -22.946779 70 129 171 
-1.389356 -1.187675 -22.946779 70 129 171 
-1.344538 -1.187675 -22.946779 70 128 171 
-1.292479 -1.181059 -22.818941 71 128 171 
-1.254902 -1.187675 -22.946779 72 128 171 
-1.281899 -1.258160 -24.308605 72 127 170 
-0.428571 -0.630952 -12.190476 74 132 172 
-0.404762 -0.630952 -12.190476 72 132 171 
-0.118519 -0.523457 -10.113581 72 133 170 
-0.042553 -0.563830 -10.893617 72 131 171 
-0.021277 -0.563830 -10.893617 73 129 169 
0.000000 -0.564581 -10.908122 51 100 141 
0.021333 -0.565333 -10.922667 20 63 103 
0.042667 -0.565333 -10.922667 20 57 97 
0.063830 -0.563830 -10.893617 23 55 94 
0.084993 -0.563081 -10.879150 19 51 88 
0.106101 -0.562334 -10.864721 17 49 84 
0.127321 -0.562334 -10.864721 17 49 83 
0.148738 -0.563081 -10.879150 19 49 83 
0.170213 -0.563830 -10.893617 19 49 83 
0.191489 -0.563830 -10.893617 18 48 82 
0.211921 -0.561589 -10.850331 18 48 82 
0.232497 -0.560106 -10.821665 17 48 81 
0.252632 -0.557895 -10.778948 18 48 82 
0.272608 -0.555701 -10.736567 18 49 83 
0.293963 -0.556430 -10.750656 18 49 85 
0.427046 -0.754448 -14.576512 18 51 87 
0.456328 -0.755793 -14.602495 19 52 89 
0.483986 -0.754448 -14.576512 17 51 89 
0.616867 -0.510843 -9.869880 25 56 94 
0.633854 -0.509004 -9.834333 24 56 94 
0.650718 -0.507177 -9.799043 24 60 98 
0.667461 -0.505364 -9.764005 31 71 110 
0.685714 -0.504762 -9.752381 65 110 149 
0.703088 -0.503563 -9.729217 80 130 169 
0.722090 -0.503563 -9.729217 79 132 171 
0.742857 -0.504762 -9.752381 78 134 171 
0.768307 -0.509004 -9.834333 78 134 171 
0.788462 -0.509615 -9.846154 77 134 171 
0.807692 -0.509615 -9.846154 76 134 171 
0.826923 -0.509615 -9.846154 75 135 171 
0.842105 -0.507177 -9.799043 74 134 170 
0.859189 -0.505967 -9.775657 73 132 167 
0.876190 -0.504762 -9.752381 73 131 165 
0.883666 -0.498237 -9.626322 74 130 165 
0.893023 -0.493023 -9.525581 74 129 165 
0.907407 -0.490741 -9.481482 74 126 163 
0.924855 -0.490173 -9.470520 74 122 159 
0.943353 -0.490173 -9.470520 50 94 131 
0.959631 -0.489043 -9.448673 22 62 98 
0.974713 -0.487356 -9.416092 23 58 93 
0.991963 -0.486797 -9.405281 26 56 91 
1.005714 -0.484571 -9.362286 26 53 87 
1.019340 -0.482366 -9.319681 24 52 84 
1.035088 -0.464912 -8.982456 26 55 85 
1.042345 -0.460369 -8.894680 27 55 84 
1.056277 -0.458874 -8.865801 28 55 84 
1.072432 -0.458378 -8.856216 27 53 82 
1.087379 -0.457389 -8.837109 25 50 80 
1.103448 -0.456897 -8.827586 27 52 81 
1.123110 -0.457883 -8.846652 28 53 83 
3.463917 -1.092783 -21.113401 28 55 82 
3.505155 -1.092783 -21.113401 27 56 81 
3.546392 -1.092783 -21.113401 27 57 79 
3.578406 -1.089974 -21.059126 23 54 76 
3.582697 -1.078880 -20.844784 34 70 92 
3.595960 -1.070707 -20.686869 63 103 127 
3.609023 -1.062657 -20.531328 78 120 145 
3.612903 -1.052109 -20.327543 80 126 152 
3.616708 -1.041769 -20.127764 79 127 154 
3.656020 -1.041769 -20.127764 80 129 157 
1.657948 -0.426559 -8.241448 85 133 162 
1.677419 -0.427419 -8.258064 83 132 161 
1.693548 -0.427419 -8.258064 81 131 160 
1.709677 -0.427419 -8.258064 80 130 158 
5.434921 -1.346032 -26.006350 79 129 157 
5.485714 -1.346032 -26.006350 77 127 154 
5.484277 -1.333333 -25.761005 76 125 152 
5.465838 -1.316770 -25.440994 77 124 152 
5.431193 -1.296636 -25.051989 75 121 150 
5.397590 -1.277108 -24.674698 67 106 136 
5.397015 -1.265672 -24.453732 34 69 99 
5.428571 -1.261905 -24.380953 21 51 81 
5.427729 -1.250737 -24.165192 22 50 78 
5.458824 -1.247059 -24.094118 23 48 74 
5.505882 -1.247059 -24.094118 22 46 70 
2.388548 -0.433538 -8.376278 81 122 140 
2.333333 -0.420635 -8.126985 83 123 141 
2.349206 -0.420635 -8.126985 84 122 141 
2.365079 -0.420635 -8.126985 84 122 141 
2.380952 -0.420635 -8.126985 84 121 141 
2.396825 -0.420635 -8.126985 83 120 142 
2.523809 -0.420635 -8.126985 76 119 141 
2.539683 -0.420635 -8.126985 77 119 142 
2.555556 -0.420635 -8.126985 78 119 142 
2.571429 -0.420635 -8.126985 79 117 140 
2.587301 -0.420635 -8.126985 51 87 109 
2.603175 -0.420635 -8.126985 21 55 75 
2.619048 -0.420635 -8.126985 20 52 71 
2.764826 -0.433538 -8.376278 22 49 64 
2.772681 -0.432212 -8.350662 22 50 65 
2.714286 -0.420635 -8.126985 26 53 68 
2.730159 -0.420635 -8.126985 30 58 72 
2.746032 -0.420635 -8.126985 35 63 77 
3.226069 -0.431772 -8.342159 24 43 55 
3.225937 -0.429585 -8.299899 25 43 55 
3.333333 -0.441667 -8.533334 25 43 54 
3.356994 -0.442589 -8.551148 25 43 53 
3.373695 -0.442589 -8.551148 24 42 52 
3.386861 -0.442127 -8.542232 24 42 51 
3.400000 -0.441667 -8.533334 24 43 50 
3.420229 -0.442127 -8.542232 23 42 50 
inf -inf -inf 63 93 104 
inf -inf -inf 57 85 97 
inf -inf -inf 34 59 72 
inf -inf -inf 18 39 52 
inf -inf -inf 16 33 46 
inf -inf -inf 16 31 42 
inf -inf -inf 18 31 40 
inf -inf -inf 17 31 36 
inf -inf -inf 16 29 31 
inf -inf -inf 16 27 29 
inf -inf -inf 16 26 30 
inf -inf -inf 16 25 30 
inf -inf -inf 16 25 30 
inf -inf -inf 15 25 28 
inf -inf -inf 15 23 26 
282.666656 -28.266666 -546.133362 15 23 26 
266.000000 -26.500000 -512.000000 14 22 25 
267.000000 -26.500000 -512.000000 14 22 24 
268.000000 -26.500000 -512.000000 14 21 24 
269.000000 -26.500000 -512.000000 14 20 23 
270.000000 -26.500000 -512.000000 15 20 23 
4.394366 -0.426559 -8.241448 13 21 23 
4.349206 -0.420635 -8.126985 13 21 23 
4.365079 -0.420635 -8.126985 12 20 22 
4.380952 -0.420635 -8.126985 11 19 21 
4.396825 -0.420635 -8.126985 12 20 22 
4.412698 -0.420635 -8.126985 12 18 21 
4.428571 -0.420635 -8.126985 12 17 20 
4.444445 -0.420635 -8.126985 12 17 20 
4.460318 -0.420635 -8.126985 12 17 20 
4.476191 -0.420635 -8.126985 12 17 20 
4.492064 -0.420635 -8.126985 12 17 20 
4.507936 -0.420635 -8.126985 12 17 20 
4.523809 -0.420635 -8.126985 13 17 20 
4.539682 -0.420635 -8.126985 13 17 20 
4.555555 -0.420635 -8.126985 13 17 20 
4.571429 -0.420635 -8.126985 12 17 18 
4.587302 -0.420635 -8.126985 12 18 18 
4.603175 -0.420635 -8.126985 13 17 18 
4.937434 -0.449629 -8.687169 13 17 18 
4.954401 -0.449629 -8.687169 12 16 17 
4.718154 -0.425276 -8.216650 12 16 17 
4.682539 -0.420635 -8.126985 12 16 16 
4.698413 -0.420635 -8.126985 11 17 16 
4.714286 -0.420635 -8.126985 10 17 17 
4.730159 -0.420635 -8.126985 10 18 17 
4.746032 -0.420635 -8.126985 10 18 17 
4.761905 -0.420635 -8.126985 10 17 17 
4.777778 -0.420635 -8.126985 10 16 16 
4.793651 -0.420635 -8.126985 10 16 16 
-67.147537 -7.213115 -134.295074 39 36 27 
-9.066667 -0.977778 -18.204445 40 37 28 
-8.971302 -0.971302 -18.083885 39 36 27 
-8.935983 -0.971302 -18.083885 44 41 32 
-8.822757 -0.962801 -17.925602 45 42 33 
-8.749455 -0.958606 -17.847494 45 41 32 
-8.714597 -0.958606 -17.847494 44 40 31 
-8.660870 -0.956522 -17.808695 47 42 32 
-8.720880 -0.967033 -18.004396 48 43 33 
-13.551601 -1.565836 -29.153025 40 37 27 
-13.342756 -1.554770 -28.946997 35 32 21 
-13.239436 -1.549296 -28.845070 39 37 25 
-13.183099 -1.549296 -28.845070 44 42 30 
-6.364641 -0.810313 -15.086556 47 44 35 
-6.323529 -0.808824 -15.058824 45 41 33 
-6.282569 -0.807339 -15.031193 39 35 27 
-6.264706 -0.808824 -15.058824 38 35 26 
-6.235294 -0.808824 -15.058824 42 38 29 
-6.205883 -0.808824 -15.058824 59 54 44 
-6.210721 -0.813309 -15.142329 59 53 42 
-6.169742 -0.811808 -15.114391 53 47 36 
-6.800000 -0.916667 -17.066668 64 56 48 
-6.766667 -0.916667 -17.066668 61 52 45 
-5.471349 -0.813309 -15.142329 55 52 48 
-5.421731 -0.810313 -15.086556 58 53 49 
-3.466667 -0.611111 -11.377778 49 48 43 
-3.444444 -0.611111 -11.377778 54 52 47 
-3.422222 -0.611111 -11.377778 57 54 49 
-3.400000 -0.611111 -11.377778 56 53 48 
-3.377778 -0.611111 -11.377778 53 50 45 
-2.714607 -0.494382 -9.204494 51 48 43 
-2.687570 -0.492721 -9.173573 52 49 43 
-2.660714 -0.491071 -9.142858 53 50 44 
-2.642857 -0.491071 -9.142858 61 58 52 
-2.625000 -0.491071 -9.142858 71 68 62 
-2.601336 -0.489978 -9.122495 71 68 62 
-2.301587 -0.436508 -8.126985 64 61 56 
-2.285714 -0.436508 -8.126985 59 56 50 
-2.608894 -0.501710 -9.340935 58 55 48 
-2.590650 -0.501710 -9.340935 58 55 48 
-2.557823 -0.498866 -9.287982 60 57 50 
-2.536806 -0.498301 -9.277463 62 59 52 
-2.518686 -0.498301 -9.277463 59 56 50 
-2.142857 -0.436508 -8.126985 62 59 53 
-2.158215 -0.446247 -8.308316 51 50 45 
-2.133333 -0.444444 -8.274748 46 45 41 
-2.110775 -0.443102 -8.249748 45 44 40 
-2.088353 -0.441767 -8.224899 47 46 42 
-2.047619 -0.436508 -8.126985 51 49 47 
-2.031746 -0.436508 -8.126985 53 52 50 
-2.015873 -0.436508 -8.126985 52 51 49 
-2.000000 -0.436508 -8.126985 51 50 48 
-1.984127 -0.436508 -8.126985 51 50 48 
-1.968254 -0.436508 -8.126985 54 53 51 
-2.020534 -0.451745 -8.410678 56 53 51 
-2.008230 -0.452675 -8.427983 56 52 50 
-1.995876 -0.453608 -8.445361 56 53 50 
-1.985522 -0.455016 -8.471561 54 53 49 
-2.087719 -0.482456 -8.982456 47 47 43 
-2.070175 -0.482456 -8.982456 42 42 38 
-2.052632 -0.482456 -8.982456 45 45 41 
-2.035088 -0.482456 -8.982456 46 46 44 
-1.847390 -0.441767 -8.224899 46 47 45 
-1.829489 -0.441324 -8.216650 44 47 47 
-1.793651 -0.436508 -8.126985 43 47 48 
-1.777778 -0.436508 -8.126985 42 46 49 
-6.044445 -1.629630 -30.340740 41 47 52 
-5.985185 -1.629630 -30.340740 32 41 49 
-5.776173 -1.588448 -29.574007 25 37 49 
-5.657143 -1.571429 -29.257143 23 40 55 
-5.600000 -1.571429 -29.257143 31 52 71 
-4.110497 -1.215470 -22.629835 36 68 97 
-4.043956 -1.208791 -22.505495 35 69 102 
-3.967303 -1.198910 -22.321526 37 75 112 
-3.902439 -1.192412 -22.200542 50 95 134 
-3.827957 -1.182796 -22.021505 66 117 157 
-3.744681 -1.170213 -21.787233 69 125 164 
-3.653543 -1.154856 -21.501312 69 127 165 
-3.602094 -1.151832 -21.445026 70 127 166 
-3.560210 -1.151832 -21.445026 71 126 165 
-3.169082 -1.062802 -19.787439 71 126 165 
-3.115385 -1.057692 -19.692308 71 126 165 
-3.062201 -1.052632 -19.598085 72 127 167 
-3.002375 -1.045131 -19.458433 72 127 168 
-2.964370 -1.045131 -19.458433 72 127 168 
-2.919431 -1.042654 -19.412323 72 127 168 
-2.881517 -1.042654 -19.412323 72 127 168 
-2.836879 -1.040189 -19.366430 72 127 168 
-2.728111 -1.013825 -18.875576 72 127 168 
-2.618834 -0.986547 -18.367714 72 127 168 
-2.560000 -0.977778 -18.204445 70 126 169 
-2.502203 -0.969163 -18.044052 69 126 168 
-2.445415 -0.960699 -17.886463 68 127 167 
-2.426374 -0.967033 -18.004396 67 127 168 
-2.375546 -0.960699 -17.886463 66 126 167 
-2.356044 -0.967033 -18.004396 58 114 153 
-5.500000 -2.291667 -42.666668 19 68 105 
-5.416667 -2.291667 -42.666668 6 47 82 
-5.333333 -2.291667 -42.666668 13 47 79 
-1.014084 -0.442656 -8.241448 15 46 77 
-0.994985 -0.441324 -8.216650 14 44 75 
-0.977956 -0.440882 -8.208417 13 42 72 
-0.961924 -0.440882 -8.208417 14 42 72 
-0.945892 -0.440882 -8.208417 16 43 73 
-0.930792 -0.441324 -8.216650 16 43 73 
-3.800000 -1.833333 -34.133335 16 43 73 
-3.733333 -1.833333 -34.133335 16 42 75 
-3.651452 -1.825726 -33.991703 15 41 74 
-3.570248 -1.818182 -33.851238 14 40 73 
-3.447155 -1.788618 -33.300812 15 41 74 
-3.341366 -1.767068 -32.899597 16 42 75 
-3.187500 -1.718750 -32.000000 17 43 74 
-3.125000 -1.718750 -32.000000 17 44 74 
-2.903704 -1.629630 -30.340740 17 44 74 
-2.621161 -1.501706 -27.959044 19 45 75 
-2.490066 -1.456954 -27.125828 19 45 77 
-2.413115 -1.442623 -26.859016 19 45 79 
-2.315113 -1.414791 -26.340836 18 46 81 
-2.234921 -1.396825 -26.006350 18 48 86 
-2.156740 -1.379310 -25.680250 23 58 98 
-2.100000 -1.375000 -25.600000 57 100 141 
-2.050000 -1.375000 -25.600000 74 124 165 
-1.865031 -1.349693 -25.128834 72 127 166 
-1.793939 -1.333333 -24.824242 71 127 166 
-1.714286 -1.309524 -24.380953 69 127 165 
-1.656805 -1.301775 -24.236687 70 128 167 
-1.609468 -1.301775 -24.236687 70 128 168 
-1.534884 -1.279070 -23.813953 70 128 168 
-1.471264 -1.264368 -23.540230 70 128 170 
-1.421203 -1.260745 -23.472780 71 129 172 
-1.375358 -1.260745 -23.472780 72 128 171 
-1.352770 -1.282799 -23.883383 73 127 170 
-1.329377 -1.305638 -24.308605 72 125 168 
-0.452381 -0.654762 -12.190476 78 133 174 
-0.428571 -0.654762 -12.190476 75 134 174 
-0.404160 -0.653789 -12.172362 71 134 172 
-0.380386 -0.653789 -12.172362 71 133 171 
-0.122293 -0.560510 -10.435669 74 134 171 
-0.063830 -0.585106 -10.893617 72 134 173 
-0.042553 -0.585106 -10.893617 72 131 171 
-0.021277 -0.585106 -10.893617 74 130 171 
0.000000 -0.585885 -10.908122 54 103 144 
0.021333 -0.586667 -10.922667 22 65 106 
0.042667 -0.586667 -10.922667 20 57 97 
0.063830 -0.585106 -10.893617 22 55 94 
0.084993 -0.584329 -10.879150 19 51 88 
0.106101 -0.583554 -10.864721 18 51 86 
0.127321 -0.583554 -10.864721 19 52 85 
0.148936 -0.585106 -10.893617 20 51 85 
0.170213 -0.585106 -10.893617 20 50 84 
0.191489 -0.585106 -10.893617 19 49 83 
0.212766 -0.585106 -10.893617 18 48 82 
0.233422 -0.583554 -10.864721 18 48 82 
0.253968 -0.582011 -10.835979 18 49 84 
0.274406 -0.580475 -10.807388 19 51 86 
0.297082 -0.583554 -10.864721 18 51 88 
0.597590 -0.530120 -9.869880 25 56 92 
0.615385 -0.528846 -9.846154 25 56 93 
0.633094 -0.527578 -9.822542 24 56 94 
0.650718 -0.526316 -9.799043 21 57 95 
0.667461 -0.524434 -9.764005 26 66 106 
0.684899 -0.523187 -9.740785 65 110 149 
0.703088 -0.522565 -9.729217 82 132 170 
0.722090 -0.522565 -9.729217 80 133 170 
0.741974 -0.523187 -9.740785 79 135 170 
0.768307 -0.528211 -9.834333 79 135 172 
0.788462 -0.528846 -9.846154 78 136 172 
0.807692 -0.528846 -9.846154 78 136 172 
0.825930 -0.528211 -9.834333 77 136 172 
0.842105 -0.526316 -9.799043 76 136 171 
0.858164 -0.524434 -9.764005 74 134 168 
0.876190 -0.523810 -9.752381 72 131 165 
0.883666 -0.517039 -9.626322 73 131 165 
0.893023 -0.511628 -9.525581 75 130 166 
0.907407 -0.509259 -9.481482 77 129 166 
0.924855 -0.508671 -9.470520 76 125 162 
0.942263 -0.508083 -9.459584 47 92 128 
0.959631 -0.507497 -9.448673 21 61 97 
0.976959 -0.506912 -9.437788 23 58 94 
0.991963 -0.505166 -9.405281 28 59 94 
1.010333 -0.505166 -9.405281 28 58 91 
1.028703 -0.505166 -9.405281 28 56 88 
1.052632 -0.482456 -8.982456 28 57 85 
1.059718 -0.477742 -8.894680 29 56 85 
1.073593 -0.476190 -8.865801 28 54 82 
1.090909 -0.476190 -8.865801 26 52 79 
1.108225 -0.476190 -8.865801 27 54 83 
3.636364 -1.176471 -21.903744 27 57 83 
3.592689 -1.148825 -21.389034 27 59 83 
3.625000 -1.145833 -21.333334 28 62 84 
3.628866 -1.134021 -21.113401 43 81 105 
3.614213 -1.116751 -20.791878 70 111 136 
3.636364 -1.111111 -20.686869 77 121 147 
3.640000 -1.100000 -20.480000 78 124 152 
3.634568 -1.086420 -20.227161 83 131 159 
3.674074 -1.086420 -20.227161 83 131 161 
5.416149 -1.366460 -25.440994 78 126 154 
5.382263 -1.345566 -25.051989 77 124 152 
5.349398 -1.325301 -24.674698 75 121 150 
5.365270 -1.317365 -24.526947 64 105 135 
5.380952 -1.309524 -24.380953 31 66 96 
5.428571 -1.309524 -24.380953 20 51 81 
5.427729 -1.297935 -24.165192 22 49 78 
5.458824 -1.294118 -24.094118 23 48 74 
5.505882 -1.294118 -24.094118 22 46 70 
5.144414 -1.198910 -22.321526 23 45 68 
2.317460 -0.436508 -8.126985 82 124 141 
2.333333 -0.436508 -8.126985 83 124 142 
2.349206 -0.436508 -8.126985 84 124 142 
2.365079 -0.436508 -8.126985 85 123 142 
2.380952 -0.436508 -8.126985 85 122 142 
2.396825 -0.436508 -8.126985 84 120 142 
2.523809 -0.436508 -8.126985 75 120 141 
2.539683 -0.436508 -8.126985 75 119 143 
2.555556 -0.436508 -8.126985 76 118 143 
2.571429 -0.436508 -8.126985 77 117 141 
2.587301 -0.436508 -8.126985 45 82 106 
2.603175 -0.436508 -8.126985 20 54 77 
2.619048 -0.436508 -8.126985 20 52 72 
2.634921 -0.436508 -8.126985 20 50 69 
2.748971 -0.452675 -8.427983 21 50 67 
2.745659 -0.449438 -8.367723 21 48 64 
2.725806 -0.443548 -8.258064 23 48 63 
2.739174 -0.443102 -8.249748 23 48 63 
2.714286 -0.436508 -8.126985 24 48 63 
2.730159 -0.436508 -8.126985 25 49 63 
2.746032 -0.436508 -8.126985 25 50 64 
3.209726 -0.445795 -8.299899 24 43 55 
3.209677 -0.443548 -8.258064 24 43 55 
3.225806 -0.443548 -8.258064 25 43 55 
3.393939 -0.459770 -8.560083 25 43 53 
3.403545 -0.458811 -8.542232 24 43 51 
3.420229 -0.458811 -8.542232 24 42 51 
inf -inf -inf 62 92 103 
inf -inf -inf 56 84 97 
inf -inf -inf 32 57 71 
inf -inf -inf 19 39 53 
inf -inf -inf 17 33 46 
inf -inf -inf 18 31 42 
inf -inf -inf 19 32 40 
inf -inf -inf 18 31 37 
inf -inf -inf 16 29 32 
inf -inf -inf 15 27 29 
inf -inf -inf 16 27 29 
inf -inf -inf 16 26 30 
inf -inf -inf 16 25 30 
inf -inf -inf 15 24 27 
inf -inf -inf 15 23 26 
302.857147 -31.428572 -585.142883 14 22 25 
224.000000 -23.157894 -431.157898 14 22 24 
213.600006 -22.000000 -409.600006 14 22 24 
238.222229 -24.444445 -455.111115 14 21 24 
239.111115 -24.444445 -455.111115 15 20 23 
240.000000 -24.444445 -455.111115 14 19 22 
4.403226 -0.443548 -8.258064 13 21 24 
4.401607 -0.441767 -8.224899 12 20 23 
4.426559 -0.442656 -8.241448 12 20 22 
4.433735 -0.441767 -8.224899 11 19 21 
4.432000 -0.440000 -8.192000 12 20 22 
4.412698 -0.436508 -8.126985 12 18 21 
4.428571 -0.436508 -8.126985 12 17 20 
4.444445 -0.436508 -8.126985 12 17 20 
4.460318 -0.436508 -8.126985 12 17 20 
4.476191 -0.436508 -8.126985 12 17 20 
4.492064 -0.436508 -8.126985 12 17 20 
4.507936 -0.436508 -8.126985 12 17 20 
4.523809 -0.436508 -8.126985 12 17 20 
4.539682 -0.436508 -8.126985 12 17 20 
4.555555 -0.436508 -8.126985 12 17 20 
4.571429 -0.436508 -8.126985 12 17 19 
4.587302 -0.436508 -8.126985 12 17 19 
4.603175 -0.436508 -8.126985 12 17 19 
4.619048 -0.436508 -8.126985 12 16 19 
4.634921 -0.436508 -8.126985 12 16 19 
4.650794 -0.436508 -8.126985 12 16 18 
4.666667 -0.436508 -8.126985 12 16 17 
4.682539 -0.436508 -8.126985 12 16 17 
4.698413 -0.436508 -8.126985 11 17 17 
4.714286 -0.436508 -8.126985 11 17 17 
4.730159 -0.436508 -8.126985 11 17 17 
4.746032 -0.436508 -8.126985 11 17 17 
4.761905 -0.436508 -8.126985 11 17 17 
4.777778 -0.436508 -8.126985 10 16 16 
-66.885246 -7.475410 -134.295074 42 39 30 
-290.285706 -32.571430 -585.142883 38 35 27 
-8.791209 -1.002198 -18.004396 41 37 27 
-8.679739 -0.993464 -17.847494 44 39 29 
-8.626087 -0.991304 -17.808695 46 41 31 
-13.333333 -1.583333 -28.444445 48 45 38 
-13.464788 -1.605634 -28.845070 48 45 37 
-13.455831 -1.611307 -28.946997 48 46 36 
-13.399293 -1.611307 -28.946997 45 42 31 
-13.342756 -1.611307 -28.946997 41 39 27 
-13.239436 -1.605634 -28.845070 38 36 24 
-13.136842 -1.600000 -28.743860 38 35 25 
-12.989547 -1.588850 -28.543554 39 36 27 
-6.352941 -0.838235 -15.058824 48 44 35 
-6.311927 -0.836697 -15.031193 45 41 32 
-6.282569 -0.836697 -15.031193 39 35 26 
-6.264706 -0.838235 -15.058824 37 33 24 
-6.235294 -0.838235 -15.058824 42 36 27 
-6.205883 -0.838235 -15.058824 54 47 37 
-6.176471 -0.838235 -15.058824 56 48 38 
-6.147059 -0.838235 -15.058824 53 45 34 
-6.117647 -0.838235 -15.058824 52 43 33 
-6.088235 -0.838235 -15.058824 47 38 29 
-6.833333 -0.950000 -17.066668 53 44 36 
-6.785863 -0.948025 -17.031185 58 49 42 
-6.738589 -0.946058 -16.995852 59 50 43 
-6.733333 -0.950000 -17.066668 56 48 41 
-5.480663 -0.839779 -15.086556 47 45 41 
-5.441176 -0.838235 -15.058824 47 45 41 
-5.411765 -0.838235 -15.058824 47 44 38 
-5.382353 -0.838235 -15.058824 51 47 40 
-2.587301 -0.452381 -8.126985 48 46 41 
-2.571429 -0.452381 -8.126985 50 48 43 
-2.555556 -0.452381 -8.126985 53 52 47 
-2.539683 -0.452381 -8.126985 54 52 47 
-3.476323 -0.635098 -11.409471 51 50 45 
-3.449235 -0.634214 -11.393602 51 50 45 
-3.422222 -0.633333 -11.377778 58 55 50 
-3.400000 -0.633333 -11.377778 55 52 47 
-3.377778 -0.633333 -11.377778 51 48 43 
-3.350902 -0.632455 -11.361998 54 52 47 
-2.696629 -0.512360 -9.204494 57 54 49 
-2.660714 -0.508929 -9.142858 55 52 46 
-2.642857 -0.508929 -9.142858 57 54 48 
-2.601336 -0.507795 -9.122495 61 59 54 
-2.301587 -0.452381 -8.126985 62 59 54 
-2.285714 -0.452381 -8.126985 59 56 50 
-2.600000 -0.518182 -9.309091 57 54 47 
-2.590650 -0.519954 -9.340935 57 54 47 
-2.563636 -0.518182 -9.309091 57 54 47 
-2.536806 -0.516421 -9.277463 59 56 49 
-2.250000 -0.475000 -8.533334 61 58 52 
-2.233333 -0.475000 -8.533334 55 54 48 
-2.184805 -0.468172 -8.410678 53 52 47 
-2.139818 -0.462006 -8.299899 51 50 46 
-2.117172 -0.460606 -8.274748 51 49 45 
-2.094663 -0.459215 -8.249748 49 47 43 
-2.066066 -0.456456 -8.200200 49 46 43 
-2.031746 -0.452381 -8.126985 50 48 46 
-2.015873 -0.452381 -8.126985 51 49 47 
-2.097815 -0.474506 -8.524454 51 50 48 
-2.081166 -0.474506 -8.524454 53 52 49 
-2.053830 -0.472050 -8.480331 56 55 51 
-2.020534 -0.468172 -8.410678 57 54 51 
-2.004107 -0.468172 -8.410678 58 54 50 
-1.991770 -0.469136 -8.427983 59 55 51 
-1.975309 -0.469136 -8.427983 57 56 51 
-1.958848 -0.469136 -8.427983 54 53 48 
-1.934426 -0.467213 -8.393442 49 48 43 
-1.906314 -0.464358 -8.342159 49 48 43 
-1.863454 -0.457831 -8.224899 47 47 43 
-1.843687 -0.456914 -8.208417 43 44 42 
-1.809524 -0.452381 -8.126985 40 42 42 
-1.793651 -0.452381 -8.126985 38 42 43 
-1.777778 -0.452381 -8.126985 40 43 47 
-1.761905 -0.452381 -8.126985 41 44 49 
-1.746032 -0.452381 -8.126985 42 44 50 
-5.956204 -1.664234 -29.897810 38 46 50 
-5.833935 -1.646209 -29.574007 34 43 50 
-5.479452 -1.561644 -28.054794 27 40 51 
-5.424657 -1.561644 -28.054794 24 41 56 
-5.351536 -1.556314 -27.959044 31 52 71 
-5.296928 -1.556314 -27.959044 38 62 84 
-4.121884 -1.263158 -22.692520 36 67 97 
-4.055097 -1.256198 -22.567493 35 68 101 
-3.978142 -1.245902 -22.382513 35 72 108 
-3.902439 -1.235772 -22.200542 47 91 130 
-3.817694 -1.222520 -21.962467 67 118 157 
-3.724868 -1.206349 -21.671957 70 126 164 
-3.653543 -1.196850 -21.501312 69 127 165 
-3.564767 -1.181347 -21.222797 71 127 166 
-3.523316 -1.181347 -21.222797 71 126 165 
-3.122892 -1.098795 -19.739759 71 126 165 
-5.886010 -2.362694 -42.445595 69 126 168 
-2.477876 -1.008850 -18.123894 68 127 167 
-2.442478 -1.008850 -18.123894 68 128 169 
-5.666667 -2.375000 -42.666668 67 127 168 
-5.642105 -2.400000 -43.115791 61 116 155 
-5.528796 -2.387434 -42.890053 24 72 110 
-5.416667 -2.375000 -42.666668 6 48 82 
-5.333333 -2.375000 -42.666668 12 47 79 
-5.222798 -2.362694 -42.445595 15 46 77 
-0.994985 -0.457372 -8.216650 15 45 76 
-0.977956 -0.456914 -8.208417 14 43 73 
-0.961924 -0.456914 -8.208417 14 42 72 
-0.945892 -0.456914 -8.208417 15 43 73 
-3.866667 -1.900000 -34.133335 15 43 73 
-3.800000 -1.900000 -34.133335 15 43 73 
-3.717842 -1.892116 -33.991703 15 42 75 
-3.636364 -1.884297 -33.851238 14 40 75 
-3.540984 -1.868852 -33.573769 14 40 73 
-3.447155 -1.853659 -33.300812 14 40 73 
-3.382114 -1.853659 -33.300812 15 41 74 
-3.277108 -1.831325 -32.899597 16 43 73 
-3.125000 -1.781250 -32.000000 16 43 73 
-2.770318 -1.611307 -28.946997 16 43 73 
-2.603390 -1.545763 -27.769491 17 44 74 
-2.473684 -1.500000 -26.947369 18 44 76 
-2.381877 -1.475728 -26.511328 18 45 77 
-2.315113 -1.466238 -26.340836 18 46 81 
-2.227848 -1.443038 -25.924051 18 48 86 
-2.156740 -1.429467 -25.680250 22 56 97 
-2.100000 -1.425000 -25.600000 56 98 139 
-1.551515 -1.381818 -24.824242 72 128 170 
-1.489489 -1.369369 -24.600601 74 128 172 
-1.490683 -1.416149 -25.440994 75 127 171 
-0.476900 -0.679583 -12.208644 57 106 148 
-0.452381 -0.678571 -12.190476 77 132 173 
-0.428571 -0.678571 -12.190476 73 134 173 
-0.404762 -0.678571 -12.190476 69 133 172 
-0.380386 -0.677563 -12.172362 70 133 171 
-0.356612 -0.677563 -12.172362 70 133 171 
-0.143590 -0.584615 -10.502564 72 132 171 
-0.122293 -0.580892 -10.435669 73 132 171 
-0.101138 -0.576485 -10.356511 72 132 171 
-0.080503 -0.573585 -10.304402 71 133 172 
-0.063745 -0.605578 -10.879150 72 134 173 
-0.042553 -0.606383 -10.893617 71 131 171 
-0.021305 -0.607190 -10.908122 74 129 170 
0.000000 -0.608000 -10.922667 56 105 146 
0.021333 -0.608000 -10.922667 22 65 106 
0.042667 -0.608000 -10.922667 20 57 98 
0.064000 -0.608000 -10.922667 20 54 93 
0.085106 -0.606383 -10.893617 20 53 90 
0.106242 -0.605578 -10.879150 20 54 89 
0.127660 -0.606383 -10.893617 21 54 87 
0.149134 -0.607190 -10.908122 22 53 86 
